ply
format ascii 1.0
element vertex 1713
property float x
property float y
property float z
property uchar red
property uchar green
property uchar blue
end_header
157.0 95.0 68.0 157 95 68
143.0 28.0 232.0 143 28 232
204.0 198.0 87.0 204 198 87
121.0 72.0 46.0 121 72 46
168.0 99.0 237.0 168 99 237
80.0 20.0 164.0 80 20 164
82.0 29.0 188.0 82 29 188
129.0 122.0 94.0 129 122 94
159.0 42.0 213.0 159 42 213
53.0 38.0 64.0 53 38 64
162.0 70.0 21.0 162 70 21
233.0 231.0 129.0 233 231 129
178.0 142.0 19.0 178 142 19
225.0 159.0 84.0 225 159 84
206.0 191.0 214.0 206 191 214
142.0 43.0 206.0 142 43 206
228.0 141.0 79.0 228 141 79
190.0 160.0 9.0 190 160 9
92.0 23.0 127.0 92 23 127
231.0 220.0 73.0 231 220 73
121.0 65.0 213.0 121 65 213
139.0 46.0 196.0 139 46 196
189.0 99.0 23.0 189 99 23
88.0 56.0 224.0 88 56 224
244.0 217.0 119.0 244 217 119
72.0 63.0 100.0 72 63 100
75.0 38.0 118.0 75 38 118
83.0 63.0 100.0 83 63 100
238.0 181.0 150.0 238 181 150
202.0 203.0 31.0 202 203 31
161.0 103.0 46.0 161 103 46
226.0 197.0 67.0 226 197 67
230.0 95.0 44.0 230 95 44
182.0 116.0 237.0 182 116 237
97.0 98.0 215.0 97 98 215
180.0 167.0 49.0 180 167 49
184.0 101.0 35.0 184 101 35
144.0 77.0 171.0 144 77 171
161.0 36.0 211.0 161 36 211
209.0 150.0 78.0 209 150 78
231.0 228.0 217.0 231 228 217
40.0 40.0 110.0 40 40 110
94.0 73.0 11.0 94 73 11
162.0 126.0 229.0 162 126 229
149.0 120.0 57.0 149 120 57
98.0 38.0 130.0 98 38 130
72.0 60.0 170.0 72 60 170
178.0 151.0 68.0 178 151 68
107.0 68.0 42.0 107 68 42
212.0 166.0 74.0 212 166 74
146.0 115.0 83.0 146 115 83
241.0 228.0 19.0 241 228 19
218.0 220.0 82.0 218 220 82
100.0 87.0 137.0 100 87 137
197.0 160.0 133.0 197 160 133
195.0 167.0 103.0 195 167 103
175.0 161.0 33.0 175 161 33
236.0 187.0 34.0 236 187 34
240.0 240.0 103.0 240 240 103
231.0 181.0 28.0 231 181 28
238.0 223.0 249.0 238 223 249
154.0 117.0 102.0 154 117 102
97.0 27.0 153.0 97 27 153
174.0 98.0 56.0 174 98 56
145.0 93.0 70.0 145 93 70
35.0 35.0 5.0 35 35 5
227.0 151.0 16.0 227 151 16
189.0 145.0 103.0 189 145 103
192.0 91.0 49.0 192 91 49
191.0 165.0 37.0 191 165 37
79.0 14.0 234.0 79 14 234
184.0 139.0 28.0 184 139 28
209.0 155.0 93.0 209 155 93
60.0 49.0 109.0 60 49 109
96.0 70.0 216.0 96 70 216
143.0 130.0 86.0 143 130 86
230.0 229.0 60.0 230 229 60
161.0 154.0 173.0 161 154 173
203.0 124.0 86.0 203 124 86
179.0 125.0 213.0 179 125 213
202.0 200.0 50.0 202 200 50
185.0 105.0 50.0 185 105 50
133.0 129.0 215.0 133 129 215
96.0 83.0 5.0 96 83 5
220.0 200.0 147.0 220 200 147
201.0 190.0 57.0 201 190 57
128.0 41.0 185.0 128 41 185
149.0 144.0 31.0 149 144 31
38.0 17.0 183.0 38 17 183
143.0 117.0 238.0 143 117 238
71.0 43.0 162.0 71 43 162
168.0 155.0 124.0 168 155 124
189.0 117.0 13.0 189 117 13
233.0 233.0 200.0 233 233 200
215.0 127.0 16.0 215 127 16
185.0 138.0 77.0 185 138 77
156.0 84.0 43.0 156 84 43
101.0 90.0 226.0 101 90 226
145.0 97.0 63.0 145 97 63
29.0 29.0 103.0 29 29 103
63.0 55.0 205.0 63 55 205
28.0 21.0 201.0 28 21 201
208.0 182.0 45.0 208 182 45
234.0 205.0 87.0 234 205 87
208.0 144.0 23.0 208 144 23
179.0 149.0 38.0 179 149 38
205.0 170.0 116.0 205 170 116
14.0 5.0 45.0 14 5 45
240.0 93.0 38.0 240 93 38
222.0 211.0 82.0 222 211 82
177.0 120.0 81.0 177 120 81
186.0 157.0 22.0 186 157 22
202.0 191.0 128.0 202 191 128
118.0 75.0 182.0 118 75 182
132.0 131.0 57.0 132 131 57
146.0 143.0 32.0 146 143 32
243.0 140.0 61.0 243 140 61
216.0 156.0 33.0 216 156 33
202.0 181.0 169.0 202 181 169
99.0 89.0 46.0 99 89 46
161.0 135.0 194.0 161 135 194
172.0 158.0 52.0 172 158 52
66.0 20.0 186.0 66 20 186
176.0 157.0 201.0 176 157 201
223.0 109.0 30.0 223 109 30
248.0 155.0 81.0 248 155 81
244.0 237.0 153.0 244 237 153
129.0 95.0 43.0 129 95 43
174.0 65.0 232.0 174 65 232
216.0 218.0 22.0 216 218 22
191.0 138.0 104.0 191 138 104
79.0 74.0 43.0 79 74 43
180.0 172.0 151.0 180 172 151
112.0 73.0 216.0 112 73 216
193.0 61.0 8.0 193 61 8
149.0 15.0 203.0 149 15 203
180.0 136.0 81.0 180 136 81
211.0 170.0 96.0 211 170 96
250.0 244.0 211.0 250 244 211
242.0 173.0 92.0 242 173 92
215.0 156.0 109.0 215 156 109
123.0 107.0 101.0 123 107 101
176.0 160.0 13.0 176 160 13
216.0 196.0 43.0 216 196 43
191.0 131.0 59.0 191 131 59
212.0 198.0 55.0 212 198 55
22.0 14.0 47.0 22 14 47
59.0 50.0 236.0 59 50 236
140.0 123.0 62.0 140 123 62
240.0 150.0 115.0 240 150 115
234.0 234.0 141.0 234 234 141
67.0 52.0 41.0 67 52 41
152.0 74.0 202.0 152 74 202
148.0 93.0 213.0 148 93 213
90.0 42.0 140.0 90 42 140
131.0 80.0 188.0 131 80 188
233.0 230.0 152.0 233 230 152
72.0 57.0 140.0 72 57 140
199.0 115.0 78.0 199 115 78
73.0 2.0 169.0 73 2 169
244.0 162.0 67.0 244 162 67
180.0 70.0 223.0 180 70 223
151.0 92.0 186.0 151 92 186
214.0 186.0 132.0 214 186 132
230.0 224.0 137.0 230 224 137
196.0 172.0 22.0 196 172 22
78.0 32.0 13.0 78 32 13
177.0 151.0 218.0 177 151 218
45.0 35.0 70.0 45 35 70
134.0 105.0 89.0 134 105 89
149.0 112.0 70.0 149 112 70
241.0 160.0 51.0 241 160 51
195.0 134.0 218.0 195 134 218
128.0 109.0 158.0 128 109 158
203.0 192.0 55.0 203 192 55
236.0 162.0 30.0 236 162 30
223.0 184.0 112.0 223 184 112
218.0 171.0 115.0 218 171 115
183.0 168.0 191.0 183 168 191
108.0 23.0 172.0 108 23 172
224.0 177.0 115.0 224 177 115
140.0 141.0 48.0 140 141 48
86.0 32.0 229.0 86 32 229
112.0 58.0 14.0 112 58 14
186.0 130.0 83.0 186 130 83
223.0 218.0 73.0 223 218 73
163.0 111.0 183.0 163 111 183
105.0 42.0 222.0 105 42 222
107.0 108.0 181.0 107 108 181
106.0 68.0 180.0 106 68 180
224.0 213.0 118.0 224 213 118
246.0 217.0 187.0 246 217 187
148.0 144.0 100.0 148 144 100
235.0 234.0 161.0 235 234 161
155.0 127.0 47.0 155 127 47
71.0 40.0 210.0 71 40 210
91.0 65.0 33.0 91 65 33
247.0 154.0 110.0 247 154 110
140.0 119.0 45.0 140 119 45
158.0 156.0 39.0 158 156 39
219.0 138.0 28.0 219 138 28
187.0 177.0 100.0 187 177 100
241.0 218.0 205.0 241 218 205
214.0 214.0 35.0 214 214 35
128.0 27.0 172.0 128 27 172
150.0 135.0 66.0 150 135 66
54.0 32.0 89.0 54 32 89
154.0 68.0 189.0 154 68 189
211.0 172.0 33.0 211 172 33
130.0 110.0 207.0 130 110 207
146.0 146.0 120.0 146 146 120
172.0 146.0 87.0 172 146 87
249.0 213.0 123.0 249 213 123
144.0 106.0 231.0 144 106 231
91.0 60.0 191.0 91 60 191
152.0 129.0 77.0 152 129 77
236.0 223.0 200.0 236 223 200
197.0 181.0 94.0 197 181 94
133.0 116.0 96.0 133 116 96
84.0 64.0 189.0 84 64 189
105.0 72.0 123.0 105 72 123
148.0 120.0 164.0 148 120 164
129.0 62.0 183.0 129 62 183
189.0 96.0 19.0 189 96 19
94.0 38.0 150.0 94 38 150
182.0 142.0 52.0 182 142 52
162.0 149.0 114.0 162 149 114
213.0 180.0 132.0 213 180 132
71.0 46.0 213.0 71 46 213
90.0 2.0 210.0 90 2 210
100.0 1.0 171.0 100 1 171
190.0 124.0 28.0 190 124 28
140.0 82.0 200.0 140 82 200
38.0 24.0 129.0 38 24 129
157.0 116.0 71.0 157 116 71
191.0 126.0 232.0 191 126 232
100.0 56.0 151.0 100 56 151
248.0 218.0 202.0 248 218 202
237.0 153.0 113.0 237 153 113
98.0 59.0 147.0 98 59 147
123.0 66.0 157.0 123 66 157
188.0 129.0 58.0 188 129 58
159.0 142.0 128.0 159 142 128
125.0 27.0 208.0 125 27 208
218.0 170.0 48.0 218 170 48
70.0 60.0 119.0 70 60 119
221.0 206.0 139.0 221 206 139
106.0 68.0 32.0 106 68 32
214.0 90.0 11.0 214 90 11
145.0 130.0 71.0 145 130 71
229.0 162.0 109.0 229 162 109
169.0 147.0 109.0 169 147 109
107.0 102.0 57.0 107 102 57
141.0 32.0 202.0 141 32 202
129.0 109.0 227.0 129 109 227
194.0 179.0 21.0 194 179 21
50.0 31.0 211.0 50 31 211
102.0 102.0 46.0 102 102 46
236.0 231.0 175.0 236 231 175
56.0 41.0 152.0 56 41 152
226.0 148.0 69.0 226 148 69
92.0 91.0 227.0 92 91 227
105.0 59.0 136.0 105 59 136
252.0 232.0 100.0 252 232 100
193.0 175.0 104.0 193 175 104
150.0 96.0 44.0 150 96 44
55.0 44.0 203.0 55 44 203
82.0 41.0 177.0 82 41 177
214.0 122.0 69.0 214 122 69
130.0 127.0 174.0 130 127 174
219.0 179.0 235.0 219 179 235
125.0 106.0 218.0 125 106 218
231.0 183.0 151.0 231 183 151
215.0 215.0 156.0 215 215 156
218.0 129.0 57.0 218 129 57
236.0 186.0 152.0 236 186 152
83.0 46.0 20.0 83 46 20
172.0 113.0 17.0 172 113 17
250.0 136.0 46.0 250 136 46
183.0 163.0 68.0 183 163 68
200.0 139.0 108.0 200 139 108
67.0 63.0 148.0 67 63 148
181.0 159.0 113.0 181 159 113
95.0 84.0 152.0 95 84 152
97.0 47.0 138.0 97 47 138
252.0 212.0 11.0 252 212 11
163.0 68.0 29.0 163 68 29
161.0 142.0 96.0 161 142 96
254.0 183.0 126.0 254 183 126
101.0 89.0 215.0 101 89 215
234.0 216.0 208.0 234 216 208
198.0 170.0 152.0 198 170 152
146.0 127.0 111.0 146 127 111
254.0 251.0 60.0 254 251 60
173.0 165.0 45.0 173 165 45
146.0 113.0 9.0 146 113 9
189.0 81.0 22.0 189 81 22
233.0 223.0 166.0 233 223 166
129.0 94.0 204.0 129 94 204
132.0 103.0 7.0 132 103 7
200.0 102.0 248.0 200 102 248
202.0 169.0 149.0 202 169 149
217.0 183.0 112.0 217 183 112
191.0 114.0 17.0 191 114 17
244.0 146.0 67.0 244 146 67
221.0 121.0 59.0 221 121 59
205.0 154.0 109.0 205 154 109
214.0 170.0 104.0 214 170 104
52.0 52.0 144.0 52 52 144
212.0 170.0 117.0 212 170 117
90.0 50.0 136.0 90 50 136
181.0 98.0 9.0 181 98 9
197.0 186.0 104.0 197 186 104
113.0 99.0 83.0 113 99 83
210.0 132.0 38.0 210 132 38
250.0 218.0 68.0 250 218 68
149.0 83.0 217.0 149 83 217
123.0 113.0 60.0 123 113 60
134.0 113.0 150.0 134 113 150
229.0 159.0 111.0 229 159 111
84.0 71.0 90.0 84 71 90
145.0 116.0 87.0 145 116 87
160.0 140.0 31.0 160 140 31
176.0 147.0 73.0 176 147 73
179.0 97.0 43.0 179 97 43
125.0 84.0 198.0 125 84 198
194.0 181.0 209.0 194 181 209
191.0 161.0 120.0 191 161 120
200.0 139.0 25.0 200 139 25
202.0 166.0 136.0 202 166 136
107.0 84.0 207.0 107 84 207
137.0 127.0 4.0 137 127 4
195.0 169.0 10.0 195 169 10
102.0 43.0 184.0 102 43 184
195.0 195.0 43.0 195 195 43
172.0 164.0 86.0 172 164 86
198.0 176.0 95.0 198 176 95
100.0 52.0 24.0 100 52 24
145.0 140.0 110.0 145 140 110
182.0 136.0 119.0 182 136 119
228.0 105.0 16.0 228 105 16
217.0 183.0 106.0 217 183 106
161.0 58.0 200.0 161 58 200
111.0 47.0 172.0 111 47 172
152.0 40.0 201.0 152 40 201
190.0 147.0 44.0 190 147 44
216.0 209.0 193.0 216 209 193
221.0 192.0 61.0 221 192 61
192.0 152.0 96.0 192 152 96
209.0 197.0 43.0 209 197 43
229.0 86.0 31.0 229 86 31
99.0 94.0 110.0 99 94 110
155.0 154.0 215.0 155 154 215
158.0 126.0 179.0 158 126 179
196.0 120.0 63.0 196 120 63
183.0 137.0 103.0 183 137 103
150.0 104.0 51.0 150 104 51
157.0 150.0 61.0 157 150 61
116.0 56.0 192.0 116 56 192
162.0 147.0 40.0 162 147 40
66.0 65.0 180.0 66 65 180
223.0 189.0 89.0 223 189 89
89.0 87.0 63.0 89 87 63
56.0 51.0 140.0 56 51 140
163.0 122.0 182.0 163 122 182
184.0 172.0 91.0 184 172 91
114.0 83.0 189.0 114 83 189
161.0 157.0 111.0 161 157 111
228.0 128.0 59.0 228 128 59
127.0 66.0 204.0 127 66 204
207.0 81.0 17.0 207 81 17
193.0 139.0 74.0 193 139 74
147.0 92.0 199.0 147 92 199
179.0 97.0 54.0 179 97 54
176.0 158.0 125.0 176 158 125
237.0 159.0 97.0 237 159 97
170.0 148.0 46.0 170 148 46
215.0 175.0 7.0 215 175 7
163.0 147.0 234.0 163 147 234
209.0 91.0 15.0 209 91 15
179.0 177.0 81.0 179 177 81
183.0 167.0 2.0 183 167 2
217.0 95.0 16.0 217 95 16
198.0 137.0 63.0 198 137 63
236.0 235.0 56.0 236 235 56
28.0 20.0 31.0 28 20 31
108.0 94.0 128.0 108 94 128
208.0 186.0 59.0 208 186 59
140.0 93.0 207.0 140 93 207
218.0 172.0 116.0 218 172 116
58.0 34.0 203.0 58 34 203
245.0 218.0 22.0 245 218 22
114.0 78.0 216.0 114 78 216
146.0 73.0 185.0 146 73 185
200.0 189.0 122.0 200 189 122
163.0 108.0 85.0 163 108 85
209.0 204.0 86.0 209 204 86
169.0 152.0 104.0 169 152 104
120.0 83.0 201.0 120 83 201
198.0 170.0 64.0 198 170 64
159.0 148.0 238.0 159 148 238
188.0 129.0 40.0 188 129 40
109.0 97.0 150.0 109 97 150
155.0 127.0 93.0 155 127 93
67.0 18.0 172.0 67 18 172
134.0 83.0 173.0 134 83 173
233.0 132.0 52.0 233 132 52
108.0 91.0 205.0 108 91 205
137.0 133.0 192.0 137 133 192
215.0 203.0 34.0 215 203 34
234.0 113.0 8.0 234 113 8
78.0 12.0 129.0 78 12 129
166.0 126.0 184.0 166 126 184
240.0 114.0 32.0 240 114 32
195.0 130.0 101.0 195 130 101
53.0 39.0 88.0 53 39 88
254.0 223.0 71.0 254 223 71
143.0 100.0 167.0 143 100 167
159.0 106.0 199.0 159 106 199
173.0 142.0 55.0 173 142 55
196.0 90.0 49.0 196 90 49
159.0 102.0 212.0 159 102 212
86.0 53.0 138.0 86 53 138
167.0 132.0 198.0 167 132 198
251.0 189.0 96.0 251 189 96
231.0 143.0 35.0 231 143 35
97.0 14.0 214.0 97 14 214
188.0 152.0 115.0 188 152 115
128.0 15.0 217.0 128 15 217
233.0 156.0 10.0 233 156 10
222.0 165.0 118.0 222 165 118
140.0 132.0 174.0 140 132 174
253.0 106.0 27.0 253 106 27
166.0 108.0 189.0 166 108 189
185.0 63.0 241.0 185 63 241
133.0 121.0 177.0 133 121 177
229.0 90.0 3.0 229 90 3
133.0 81.0 27.0 133 81 27
166.0 116.0 2.0 166 116 2
112.0 72.0 237.0 112 72 237
178.0 170.0 57.0 178 170 57
134.0 92.0 177.0 134 92 177
111.0 93.0 22.0 111 93 22
135.0 39.0 175.0 135 39 175
145.0 96.0 33.0 145 96 33
106.0 31.0 183.0 106 31 183
141.0 58.0 12.0 141 58 12
48.0 27.0 89.0 48 27 89
185.0 161.0 44.0 185 161 44
206.0 181.0 113.0 206 181 113
114.0 92.0 10.0 114 92 10
162.0 114.0 60.0 162 114 60
215.0 110.0 57.0 215 110 57
224.0 210.0 38.0 224 210 38
89.0 37.0 195.0 89 37 195
185.0 172.0 205.0 185 172 205
90.0 38.0 206.0 90 38 206
120.0 104.0 77.0 120 104 77
65.0 38.0 209.0 65 38 209
154.0 122.0 234.0 154 122 234
191.0 182.0 119.0 191 182 119
189.0 181.0 150.0 189 181 150
137.0 76.0 163.0 137 76 163
101.0 67.0 229.0 101 67 229
222.0 222.0 52.0 222 222 52
234.0 204.0 138.0 234 204 138
168.0 125.0 233.0 168 125 233
159.0 153.0 58.0 159 153 58
247.0 152.0 82.0 247 152 82
178.0 174.0 152.0 178 174 152
242.0 239.0 154.0 242 239 154
213.0 99.0 12.0 213 99 12
172.0 122.0 216.0 172 122 216
178.0 141.0 39.0 178 141 39
246.0 193.0 151.0 246 193 151
135.0 80.0 157.0 135 80 157
122.0 86.0 165.0 122 86 165
178.0 110.0 216.0 178 110 216
89.0 76.0 157.0 89 76 157
221.0 205.0 169.0 221 205 169
140.0 98.0 50.0 140 98 50
187.0 136.0 44.0 187 136 44
201.0 164.0 33.0 201 164 33
175.0 145.0 131.0 175 145 131
186.0 145.0 124.0 186 145 124
233.0 227.0 178.0 233 227 178
226.0 207.0 143.0 226 207 143
90.0 83.0 23.0 90 83 23
217.0 147.0 67.0 217 147 67
242.0 233.0 192.0 242 233 192
158.0 122.0 186.0 158 122 186
56.0 22.0 212.0 56 22 212
214.0 201.0 98.0 214 201 98
165.0 119.0 41.0 165 119 41
93.0 77.0 127.0 93 77 127
203.0 190.0 88.0 203 190 88
108.0 60.0 27.0 108 60 27
203.0 114.0 29.0 203 114 29
72.0 41.0 121.0 72 41 121
123.0 88.0 195.0 123 88 195
243.0 134.0 45.0 243 134 45
147.0 143.0 216.0 147 143 216
177.0 174.0 102.0 177 174 102
206.0 202.0 193.0 206 202 193
241.0 137.0 48.0 241 137 48
155.0 34.0 199.0 155 34 199
183.0 75.0 29.0 183 75 29
239.0 179.0 128.0 239 179 128
108.0 84.0 21.0 108 84 21
204.0 197.0 34.0 204 197 34
214.0 142.0 88.0 214 142 88
50.0 50.0 204.0 50 50 204
179.0 148.0 234.0 179 148 234
217.0 218.0 126.0 217 218 126
52.0 23.0 174.0 52 23 174
140.0 104.0 56.0 140 104 56
221.0 166.0 82.0 221 166 82
128.0 14.0 172.0 128 14 172
156.0 82.0 230.0 156 82 230
229.0 177.0 103.0 229 177 103
124.0 121.0 72.0 124 121 72
247.0 128.0 48.0 247 128 48
235.0 216.0 122.0 235 216 122
195.0 182.0 35.0 195 182 35
66.0 10.0 181.0 66 10 181
77.0 44.0 4.0 77 44 4
209.0 201.0 71.0 209 201 71
120.0 92.0 154.0 120 92 154
247.0 180.0 83.0 247 180 83
161.0 158.0 29.0 161 158 29
83.0 81.0 215.0 83 81 215
66.0 41.0 12.0 66 41 12
137.0 103.0 176.0 137 103 176
233.0 220.0 174.0 233 220 174
118.0 89.0 223.0 118 89 223
227.0 157.0 75.0 227 157 75
174.0 155.0 141.0 174 155 141
211.0 170.0 44.0 211 170 44
105.0 7.0 191.0 105 7 191
245.0 178.0 132.0 245 178 132
107.0 96.0 36.0 107 96 36
223.0 118.0 60.0 223 118 60
141.0 138.0 92.0 141 138 92
201.0 153.0 85.0 201 153 85
116.0 61.0 202.0 116 61 202
249.0 125.0 40.0 249 125 40
223.0 114.0 48.0 223 114 48
171.0 155.0 18.0 171 155 18
213.0 162.0 30.0 213 162 30
196.0 133.0 110.0 196 133 110
133.0 112.0 71.0 133 112 71
160.0 51.0 217.0 160 51 217
143.0 129.0 150.0 143 129 150
247.0 168.0 72.0 247 168 72
244.0 222.0 65.0 244 222 65
221.0 175.0 16.0 221 175 16
181.0 152.0 51.0 181 152 51
137.0 112.0 46.0 137 112 46
195.0 179.0 73.0 195 179 73
154.0 137.0 107.0 154 137 107
71.0 26.0 90.0 71 26 90
203.0 172.0 21.0 203 172 21
215.0 159.0 50.0 215 159 50
45.0 40.0 189.0 45 40 189
134.0 56.0 231.0 134 56 231
147.0 69.0 195.0 147 69 195
218.0 211.0 86.0 218 211 86
217.0 145.0 55.0 217 145 55
105.0 72.0 59.0 105 72 59
19.0 10.0 190.0 19 10 190
55.0 8.0 78.0 55 8 78
139.0 14.0 224.0 139 14 224
152.0 124.0 37.0 152 124 37
180.0 140.0 37.0 180 140 37
76.0 12.0 147.0 76 12 147
110.0 89.0 22.0 110 89 22
218.0 218.0 215.0 218 218 215
134.0 104.0 62.0 134 104 62
250.0 193.0 19.0 250 193 19
105.0 106.0 32.0 105 106 32
114.0 93.0 130.0 114 93 130
107.0 49.0 188.0 107 49 188
184.0 171.0 218.0 184 171 218
230.0 190.0 155.0 230 190 155
98.0 67.0 37.0 98 67 37
106.0 81.0 172.0 106 81 172
154.0 135.0 177.0 154 135 177
128.0 103.0 199.0 128 103 199
205.0 150.0 37.0 205 150 37
64.0 20.0 98.0 64 20 98
169.0 75.0 225.0 169 75 225
185.0 165.0 82.0 185 165 82
189.0 184.0 71.0 189 184 71
219.0 199.0 237.0 219 199 237
174.0 171.0 50.0 174 171 50
242.0 231.0 94.0 242 231 94
248.0 189.0 125.0 248 189 125
252.0 220.0 116.0 252 220 116
159.0 123.0 85.0 159 123 85
97.0 90.0 54.0 97 90 54
175.0 90.0 238.0 175 90 238
87.0 59.0 131.0 87 59 131
210.0 163.0 113.0 210 163 113
105.0 70.0 207.0 105 70 207
226.0 213.0 161.0 226 213 161
229.0 158.0 103.0 229 158 103
86.0 61.0 171.0 86 61 171
222.0 172.0 140.0 222 172 140
228.0 173.0 65.0 228 173 65
59.0 39.0 120.0 59 39 120
121.0 111.0 106.0 121 111 106
70.0 48.0 218.0 70 48 218
165.0 121.0 90.0 165 121 90
172.0 161.0 152.0 172 161 152
198.0 93.0 49.0 198 93 49
77.0 52.0 181.0 77 52 181
122.0 108.0 76.0 122 108 76
108.0 82.0 177.0 108 82 177
206.0 199.0 53.0 206 199 53
164.0 68.0 246.0 164 68 246
190.0 121.0 52.0 190 121 52
142.0 112.0 166.0 142 112 166
100.0 81.0 156.0 100 81 156
154.0 99.0 175.0 154 99 175
169.0 154.0 135.0 169 154 135
206.0 166.0 109.0 206 166 109
232.0 203.0 80.0 232 203 80
212.0 181.0 156.0 212 181 156
145.0 98.0 23.0 145 98 23
103.0 95.0 47.0 103 95 47
173.0 101.0 31.0 173 101 31
210.0 157.0 25.0 210 157 25
209.0 179.0 226.0 209 179 226
131.0 91.0 35.0 131 91 35
233.0 193.0 67.0 233 193 67
174.0 14.0 232.0 174 14 232
141.0 98.0 205.0 141 98 205
225.0 189.0 43.0 225 189 43
211.0 154.0 46.0 211 154 46
193.0 132.0 51.0 193 132 51
152.0 123.0 201.0 152 123 201
191.0 172.0 32.0 191 172 32
239.0 235.0 36.0 239 235 36
213.0 162.0 133.0 213 162 133
243.0 230.0 107.0 243 230 107
156.0 116.0 208.0 156 116 208
180.0 172.0 11.0 180 172 11
90.0 66.0 182.0 90 66 182
199.0 123.0 17.0 199 123 17
195.0 149.0 93.0 195 149 93
188.0 160.0 63.0 188 160 63
228.0 207.0 137.0 228 207 137
155.0 40.0 205.0 155 40 205
172.0 129.0 62.0 172 129 62
167.0 97.0 195.0 167 97 195
149.0 68.0 27.0 149 68 27
188.0 158.0 65.0 188 158 65
207.0 177.0 243.0 207 177 243
241.0 209.0 146.0 241 209 146
142.0 70.0 34.0 142 70 34
209.0 200.0 246.0 209 200 246
239.0 210.0 64.0 239 210 64
175.0 164.0 42.0 175 164 42
180.0 56.0 225.0 180 56 225
123.0 115.0 230.0 123 115 230
87.0 68.0 164.0 87 68 164
27.0 13.0 134.0 27 13 134
236.0 209.0 113.0 236 209 113
99.0 45.0 154.0 99 45 154
111.0 98.0 131.0 111 98 131
175.0 165.0 115.0 175 165 115
154.0 136.0 113.0 154 136 113
164.0 123.0 64.0 164 123 64
117.0 66.0 23.0 117 66 23
139.0 122.0 78.0 139 122 78
204.0 86.0 24.0 204 86 24
144.0 62.0 188.0 144 62 188
126.0 73.0 41.0 126 73 41
235.0 223.0 137.0 235 223 137
118.0 73.0 51.0 118 73 51
237.0 194.0 78.0 237 194 78
58.0 51.0 196.0 58 51 196
194.0 97.0 11.0 194 97 11
194.0 183.0 48.0 194 183 48
150.0 82.0 177.0 150 82 177
181.0 96.0 35.0 181 96 35
64.0 62.0 125.0 64 62 125
121.0 63.0 35.0 121 63 35
182.0 162.0 89.0 182 162 89
138.0 24.0 218.0 138 24 218
81.0 55.0 221.0 81 55 221
234.0 217.0 37.0 234 217 37
202.0 119.0 75.0 202 119 75
77.0 58.0 217.0 77 58 217
229.0 214.0 160.0 229 214 160
93.0 27.0 241.0 93 27 241
110.0 24.0 167.0 110 24 167
153.0 150.0 7.0 153 150 7
40.0 32.0 178.0 40 32 178
107.0 26.0 189.0 107 26 189
228.0 215.0 77.0 228 215 77
214.0 158.0 1.0 214 158 1
84.0 14.0 140.0 84 14 140
146.0 135.0 186.0 146 135 186
197.0 157.0 102.0 197 157 102
237.0 173.0 140.0 237 173 140
157.0 98.0 50.0 157 98 50
157.0 137.0 96.0 157 137 96
110.0 92.0 165.0 110 92 165
110.0 105.0 50.0 110 105 50
121.0 121.0 5.0 121 121 5
153.0 109.0 174.0 153 109 174
122.0 71.0 145.0 122 71 145
210.0 108.0 248.0 210 108 248
235.0 161.0 86.0 235 161 86
159.0 151.0 75.0 159 151 75
192.0 106.0 9.0 192 106 9
192.0 90.0 53.0 192 90 53
96.0 92.0 80.0 96 92 80
234.0 184.0 104.0 234 184 104
231.0 122.0 31.0 231 122 31
245.0 203.0 38.0 245 203 38
130.0 111.0 171.0 130 111 171
170.0 119.0 80.0 170 119 80
122.0 103.0 38.0 122 103 38
96.0 83.0 120.0 96 83 120
247.0 123.0 7.0 247 123 7
120.0 54.0 216.0 120 54 216
217.0 157.0 108.0 217 157 108
162.0 150.0 191.0 162 150 191
216.0 194.0 159.0 216 194 159
237.0 190.0 156.0 237 190 156
220.0 218.0 164.0 220 218 164
52.0 50.0 164.0 52 50 164
229.0 204.0 77.0 229 204 77
219.0 176.0 109.0 219 176 109
199.0 166.0 41.0 199 166 41
169.0 151.0 121.0 169 151 121
62.0 48.0 140.0 62 48 140
182.0 124.0 62.0 182 124 62
230.0 136.0 33.0 230 136 33
235.0 204.0 115.0 235 204 115
218.0 162.0 57.0 218 162 57
216.0 108.0 39.0 216 108 39
246.0 95.0 7.0 246 95 7
136.0 126.0 167.0 136 126 167
223.0 179.0 115.0 223 179 115
169.0 113.0 214.0 169 113 214
211.0 166.0 145.0 211 166 145
81.0 59.0 110.0 81 59 110
214.0 157.0 15.0 214 157 15
175.0 132.0 191.0 175 132 191
119.0 120.0 48.0 119 120 48
141.0 83.0 61.0 141 83 61
90.0 71.0 56.0 90 71 56
204.0 131.0 244.0 204 131 244
214.0 172.0 10.0 214 172 10
164.0 144.0 110.0 164 144 110
251.0 188.0 115.0 251 188 115
230.0 221.0 137.0 230 221 137
116.0 78.0 23.0 116 78 23
100.0 45.0 156.0 100 45 156
161.0 135.0 87.0 161 135 87
201.0 170.0 123.0 201 170 123
224.0 154.0 113.0 224 154 113
232.0 230.0 72.0 232 230 72
11.0 11.0 238.0 11 11 238
253.0 232.0 108.0 253 232 108
130.0 116.0 56.0 130 116 56
189.0 162.0 77.0 189 162 77
145.0 68.0 24.0 145 68 24
240.0 124.0 20.0 240 124 20
239.0 234.0 68.0 239 234 68
182.0 95.0 228.0 182 95 228
99.0 40.0 220.0 99 40 220
131.0 94.0 27.0 131 94 27
169.0 127.0 80.0 169 127 80
120.0 73.0 202.0 120 73 202
141.0 127.0 116.0 141 127 116
229.0 179.0 138.0 229 179 138
232.0 189.0 173.0 232 189 173
239.0 214.0 79.0 239 214 79
116.0 92.0 134.0 116 92 134
50.0 35.0 211.0 50 35 211
145.0 48.0 209.0 145 48 209
102.0 87.0 222.0 102 87 222
187.0 99.0 37.0 187 99 37
134.0 96.0 21.0 134 96 21
199.0 181.0 82.0 199 181 82
182.0 133.0 106.0 182 133 106
142.0 80.0 174.0 142 80 174
187.0 169.0 153.0 187 169 153
209.0 200.0 31.0 209 200 31
102.0 85.0 209.0 102 85 209
236.0 192.0 135.0 236 192 135
94.0 94.0 93.0 94 94 93
239.0 228.0 130.0 239 228 130
209.0 189.0 81.0 209 189 81
50.0 26.0 159.0 50 26 159
44.0 36.0 182.0 44 36 182
170.0 149.0 196.0 170 149 196
235.0 196.0 122.0 235 196 122
200.0 145.0 91.0 200 145 91
28.0 4.0 170.0 28 4 170
81.0 82.0 203.0 81 82 203
167.0 83.0 201.0 167 83 201
151.0 89.0 194.0 151 89 194
220.0 90.0 36.0 220 90 36
204.0 119.0 57.0 204 119 57
219.0 212.0 79.0 219 212 79
220.0 156.0 33.0 220 156 33
235.0 233.0 225.0 235 233 225
130.0 96.0 42.0 130 96 42
224.0 163.0 101.0 224 163 101
82.0 26.0 235.0 82 26 235
96.0 69.0 136.0 96 69 136
137.0 84.0 166.0 137 84 166
220.0 190.0 49.0 220 190 49
129.0 121.0 41.0 129 121 41
190.0 105.0 13.0 190 105 13
134.0 122.0 23.0 134 122 23
120.0 86.0 69.0 120 86 69
142.0 129.0 82.0 142 129 82
206.0 135.0 76.0 206 135 76
215.0 130.0 76.0 215 130 76
111.0 68.0 164.0 111 68 164
210.0 200.0 116.0 210 200 116
130.0 94.0 58.0 130 94 58
107.0 83.0 129.0 107 83 129
109.0 69.0 221.0 109 69 221
221.0 184.0 164.0 221 184 164
113.0 58.0 33.0 113 58 33
224.0 199.0 113.0 224 199 113
163.0 145.0 127.0 163 145 127
207.0 120.0 30.0 207 120 30
200.0 170.0 54.0 200 170 54
146.0 108.0 176.0 146 108 176
200.0 125.0 45.0 200 125 45
88.0 70.0 179.0 88 70 179
244.0 215.0 176.0 244 215 176
124.0 94.0 173.0 124 94 173
94.0 64.0 175.0 94 64 175
213.0 211.0 99.0 213 211 99
104.0 91.0 134.0 104 91 134
88.0 87.0 68.0 88 87 68
119.0 71.0 46.0 119 71 46
164.0 135.0 89.0 164 135 89
104.0 79.0 148.0 104 79 148
58.0 47.0 90.0 58 47 90
198.0 187.0 59.0 198 187 59
225.0 221.0 60.0 225 221 60
196.0 125.0 86.0 196 125 86
101.0 73.0 57.0 101 73 57
245.0 224.0 205.0 245 224 205
124.0 59.0 35.0 124 59 35
139.0 134.0 67.0 139 134 67
162.0 131.0 227.0 162 131 227
124.0 71.0 203.0 124 71 203
189.0 161.0 101.0 189 161 101
144.0 139.0 152.0 144 139 152
80.0 47.0 169.0 80 47 169
174.0 140.0 35.0 174 140 35
195.0 189.0 135.0 195 189 135
116.0 65.0 206.0 116 65 206
220.0 139.0 63.0 220 139 63
226.0 216.0 81.0 226 216 81
126.0 105.0 193.0 126 105 193
48.0 15.0 108.0 48 15 108
121.0 79.0 18.0 121 79 18
182.0 130.0 90.0 182 130 90
213.0 187.0 50.0 213 187 50
148.0 34.0 221.0 148 34 221
107.0 88.0 184.0 107 88 184
180.0 170.0 123.0 180 170 123
234.0 233.0 180.0 234 233 180
92.0 89.0 182.0 92 89 182
102.0 95.0 39.0 102 95 39
179.0 174.0 160.0 179 174 160
200.0 165.0 82.0 200 165 82
178.0 157.0 204.0 178 157 204
170.0 132.0 63.0 170 132 63
77.0 60.0 89.0 77 60 89
180.0 146.0 16.0 180 146 16
241.0 182.0 143.0 241 182 143
207.0 126.0 24.0 207 126 24
68.0 54.0 77.0 68 54 77
187.0 113.0 65.0 187 113 65
99.0 97.0 119.0 99 97 119
235.0 112.0 46.0 235 112 46
181.0 86.0 32.0 181 86 32
197.0 170.0 36.0 197 170 36
199.0 189.0 220.0 199 189 220
192.0 126.0 99.0 192 126 99
210.0 123.0 29.0 210 123 29
121.0 96.0 218.0 121 96 218
188.0 156.0 115.0 188 156 115
50.0 28.0 119.0 50 28 119
253.0 167.0 87.0 253 167 87
206.0 152.0 65.0 206 152 65
216.0 189.0 147.0 216 189 147
223.0 221.0 48.0 223 221 48
238.0 236.0 99.0 238 236 99
226.0 148.0 88.0 226 148 88
175.0 147.0 39.0 175 147 39
155.0 131.0 77.0 155 131 77
134.0 122.0 177.0 134 122 177
242.0 139.0 12.0 242 139 12
223.0 213.0 228.0 223 213 228
145.0 138.0 120.0 145 138 120
226.0 127.0 87.0 226 127 87
236.0 141.0 51.0 236 141 51
86.0 66.0 117.0 86 66 117
201.0 180.0 77.0 201 180 77
236.0 134.0 23.0 236 134 23
156.0 96.0 250.0 156 96 250
121.0 91.0 215.0 121 91 215
212.0 118.0 68.0 212 118 68
186.0 152.0 38.0 186 152 38
150.0 86.0 204.0 150 86 204
128.0 71.0 161.0 128 71 161
124.0 77.0 208.0 124 77 208
241.0 227.0 66.0 241 227 66
168.0 120.0 66.0 168 120 66
150.0 84.0 187.0 150 84 187
122.0 102.0 57.0 122 102 57
64.0 64.0 189.0 64 64 189
81.0 46.0 180.0 81 46 180
160.0 137.0 183.0 160 137 183
71.0 57.0 203.0 71 57 203
176.0 152.0 190.0 176 152 190
198.0 166.0 64.0 198 166 64
49.0 45.0 38.0 49 45 38
118.0 37.0 166.0 118 37 166
94.0 67.0 219.0 94 67 219
123.0 81.0 213.0 123 81 213
149.0 110.0 233.0 149 110 233
173.0 89.0 47.0 173 89 47
210.0 132.0 64.0 210 132 64
86.0 86.0 238.0 86 86 238
34.0 7.0 102.0 34 7 102
48.0 46.0 149.0 48 46 149
95.0 28.0 236.0 95 28 236
196.0 141.0 219.0 196 141 219
154.0 35.0 199.0 154 35 199
145.0 139.0 55.0 145 139 55
77.0 55.0 198.0 77 55 198
109.0 72.0 39.0 109 72 39
240.0 206.0 79.0 240 206 79
70.0 32.0 172.0 70 32 172
54.0 27.0 178.0 54 27 178
209.0 176.0 87.0 209 176 87
161.0 146.0 127.0 161 146 127
39.0 38.0 44.0 39 38 44
128.0 95.0 215.0 128 95 215
216.0 143.0 34.0 216 143 34
248.0 236.0 49.0 248 236 49
180.0 125.0 76.0 180 125 76
149.0 120.0 66.0 149 120 66
117.0 45.0 190.0 117 45 190
224.0 172.0 139.0 224 172 139
136.0 96.0 207.0 136 96 207
125.0 114.0 162.0 125 114 162
235.0 228.0 222.0 235 228 222
194.0 109.0 59.0 194 109 59
231.0 204.0 139.0 231 204 139
169.0 75.0 222.0 169 75 222
207.0 208.0 128.0 207 208 128
232.0 223.0 8.0 232 223 8
193.0 124.0 95.0 193 124 95
150.0 71.0 42.0 150 71 42
208.0 138.0 36.0 208 138 36
169.0 66.0 211.0 169 66 211
48.0 41.0 183.0 48 41 183
134.0 112.0 21.0 134 112 21
195.0 188.0 211.0 195 188 211
213.0 134.0 40.0 213 134 40
238.0 217.0 49.0 238 217 49
221.0 150.0 2.0 221 150 2
108.0 101.0 250.0 108 101 250
126.0 123.0 111.0 126 123 111
190.0 186.0 184.0 190 186 184
219.0 198.0 229.0 219 198 229
190.0 151.0 62.0 190 151 62
79.0 66.0 57.0 79 66 57
199.0 79.0 27.0 199 79 27
127.0 90.0 7.0 127 90 7
211.0 147.0 67.0 211 147 67
68.0 14.0 117.0 68 14 117
176.0 142.0 5.0 176 142 5
246.0 147.0 70.0 246 147 70
42.0 36.0 107.0 42 36 107
73.0 20.0 209.0 73 20 209
233.0 201.0 28.0 233 201 28
155.0 48.0 226.0 155 48 226
64.0 62.0 89.0 64 62 89
98.0 61.0 174.0 98 61 174
186.0 129.0 62.0 186 129 62
139.0 73.0 175.0 139 73 175
161.0 105.0 46.0 161 105 46
124.0 84.0 43.0 124 84 43
226.0 192.0 141.0 226 192 141
239.0 227.0 246.0 239 227 246
208.0 182.0 73.0 208 182 73
116.0 56.0 221.0 116 56 221
166.0 99.0 14.0 166 99 14
169.0 117.0 236.0 169 117 236
188.0 177.0 35.0 188 177 35
212.0 152.0 78.0 212 152 78
195.0 193.0 139.0 195 193 139
171.0 167.0 26.0 171 167 26
130.0 83.0 59.0 130 83 59
106.0 87.0 58.0 106 87 58
234.0 194.0 49.0 234 194 49
206.0 140.0 109.0 206 140 109
146.0 129.0 63.0 146 129 63
36.0 36.0 210.0 36 36 210
109.0 110.0 180.0 109 110 180
193.0 130.0 107.0 193 130 107
210.0 200.0 92.0 210 200 92
47.0 30.0 159.0 47 30 159
148.0 35.0 233.0 148 35 233
164.0 117.0 92.0 164 117 92
150.0 141.0 166.0 150 141 166
244.0 166.0 8.0 244 166 8
222.0 142.0 85.0 222 142 85
245.0 172.0 87.0 245 172 87
118.0 115.0 7.0 118 115 7
230.0 220.0 93.0 230 220 93
92.0 19.0 122.0 92 19 122
187.0 103.0 61.0 187 103 61
183.0 160.0 41.0 183 160 41
138.0 64.0 234.0 138 64 234
155.0 41.0 248.0 155 41 248
206.0 143.0 45.0 206 143 45
68.0 34.0 180.0 68 34 180
92.0 44.0 124.0 92 44 124
197.0 180.0 126.0 197 180 126
166.0 73.0 227.0 166 73 227
131.0 111.0 175.0 131 111 175
193.0 110.0 52.0 193 110 52
173.0 159.0 214.0 173 159 214
92.0 59.0 156.0 92 59 156
115.0 59.0 162.0 115 59 162
231.0 103.0 19.0 231 103 19
94.0 42.0 218.0 94 42 218
107.0 19.0 177.0 107 19 177
52.0 41.0 149.0 52 41 149
39.0 35.0 166.0 39 35 166
124.0 116.0 85.0 124 116 85
219.0 114.0 44.0 219 114 44
118.0 114.0 82.0 118 114 82
90.0 57.0 200.0 90 57 200
251.0 228.0 176.0 251 228 176
60.0 50.0 190.0 60 50 190
214.0 197.0 181.0 214 197 181
167.0 153.0 211.0 167 153 211
177.0 145.0 74.0 177 145 74
156.0 115.0 47.0 156 115 47
223.0 108.0 26.0 223 108 26
225.0 197.0 47.0 225 197 47
173.0 121.0 204.0 173 121 204
153.0 70.0 240.0 153 70 240
220.0 183.0 42.0 220 183 42
180.0 56.0 236.0 180 56 236
246.0 189.0 161.0 246 189 161
221.0 177.0 64.0 221 177 64
114.0 43.0 246.0 114 43 246
185.0 96.0 15.0 185 96 15
152.0 26.0 205.0 152 26 205
177.0 175.0 30.0 177 175 30
177.0 145.0 132.0 177 145 132
247.0 177.0 98.0 247 177 98
227.0 180.0 71.0 227 180 71
135.0 41.0 223.0 135 41 223
175.0 142.0 128.0 175 142 128
125.0 102.0 149.0 125 102 149
236.0 190.0 113.0 236 190 113
155.0 155.0 20.0 155 155 20
188.0 110.0 77.0 188 110 77
210.0 160.0 95.0 210 160 95
126.0 31.0 208.0 126 31 208
77.0 74.0 132.0 77 74 132
216.0 85.0 13.0 216 85 13
146.0 142.0 132.0 146 142 132
187.0 176.0 107.0 187 176 107
177.0 86.0 44.0 177 86 44
117.0 16.0 182.0 117 16 182
156.0 128.0 102.0 156 128 102
152.0 120.0 177.0 152 120 177
180.0 101.0 70.0 180 101 70
176.0 147.0 23.0 176 147 23
174.0 129.0 92.0 174 129 92
179.0 145.0 213.0 179 145 213
40.0 31.0 57.0 40 31 57
95.0 84.0 45.0 95 84 45
203.0 174.0 92.0 203 174 92
234.0 211.0 88.0 234 211 88
237.0 197.0 111.0 237 197 111
225.0 174.0 25.0 225 174 25
196.0 186.0 103.0 196 186 103
243.0 124.0 31.0 243 124 31
128.0 88.0 157.0 128 88 157
235.0 222.0 20.0 235 222 20
174.0 167.0 114.0 174 167 114
130.0 64.0 243.0 130 64 243
207.0 148.0 230.0 207 148 230
143.0 121.0 44.0 143 121 44
129.0 20.0 236.0 129 20 236
237.0 220.0 101.0 237 220 101
92.0 86.0 207.0 92 86 207
202.0 169.0 69.0 202 169 69
211.0 91.0 38.0 211 91 38
48.0 10.0 188.0 48 10 188
238.0 236.0 66.0 238 236 66
83.0 22.0 149.0 83 22 149
203.0 122.0 69.0 203 122 69
126.0 72.0 155.0 126 72 155
69.0 41.0 90.0 69 41 90
177.0 174.0 125.0 177 174 125
216.0 180.0 104.0 216 180 104
171.0 161.0 68.0 171 161 68
219.0 164.0 83.0 219 164 83
203.0 189.0 31.0 203 189 31
114.0 87.0 159.0 114 87 159
215.0 94.0 45.0 215 94 45
53.0 38.0 78.0 53 38 78
139.0 121.0 228.0 139 121 228
130.0 16.0 233.0 130 16 233
170.0 101.0 36.0 170 101 36
100.0 73.0 5.0 100 73 5
157.0 130.0 178.0 157 130 178
221.0 138.0 73.0 221 138 73
224.0 165.0 55.0 224 165 55
188.0 137.0 85.0 188 137 85
232.0 151.0 118.0 232 151 118
108.0 36.0 171.0 108 36 171
215.0 170.0 80.0 215 170 80
187.0 128.0 61.0 187 128 61
131.0 124.0 75.0 131 124 75
104.0 74.0 118.0 104 74 118
182.0 72.0 29.0 182 72 29
86.0 77.0 101.0 86 77 101
247.0 108.0 19.0 247 108 19
243.0 137.0 84.0 243 137 84
154.0 141.0 49.0 154 141 49
167.0 155.0 145.0 167 155 145
189.0 180.0 47.0 189 180 47
213.0 143.0 72.0 213 143 72
103.0 91.0 153.0 103 91 153
239.0 109.0 20.0 239 109 20
208.0 117.0 23.0 208 117 23
166.0 121.0 21.0 166 121 21
103.0 72.0 55.0 103 72 55
230.0 156.0 52.0 230 156 52
108.0 97.0 165.0 108 97 165
118.0 17.0 174.0 118 17 174
136.0 118.0 32.0 136 118 32
131.0 118.0 95.0 131 118 95
191.0 153.0 21.0 191 153 21
142.0 54.0 177.0 142 54 177
166.0 142.0 193.0 166 142 193
215.0 110.0 36.0 215 110 36
166.0 129.0 182.0 166 129 182
156.0 125.0 181.0 156 125 181
246.0 190.0 165.0 246 190 165
112.0 111.0 130.0 112 111 130
97.0 95.0 67.0 97 95 67
81.0 60.0 91.0 81 60 91
166.0 154.0 65.0 166 154 65
233.0 191.0 76.0 233 191 76
158.0 108.0 241.0 158 108 241
194.0 143.0 68.0 194 143 68
240.0 102.0 31.0 240 102 31
209.0 109.0 45.0 209 109 45
86.0 72.0 62.0 86 72 62
177.0 129.0 33.0 177 129 33
189.0 121.0 76.0 189 121 76
136.0 75.0 50.0 136 75 50
164.0 142.0 23.0 164 142 23
173.0 128.0 202.0 173 128 202
220.0 204.0 227.0 220 204 227
177.0 169.0 181.0 177 169 181
126.0 125.0 116.0 126 125 116
89.0 13.0 219.0 89 13 219
144.0 123.0 234.0 144 123 234
229.0 220.0 97.0 229 220 97
229.0 199.0 85.0 229 199 85
194.0 154.0 90.0 194 154 90
227.0 209.0 69.0 227 209 69
187.0 174.0 58.0 187 174 58
59.0 23.0 179.0 59 23 179
95.0 62.0 150.0 95 62 150
131.0 56.0 218.0 131 56 218
148.0 43.0 227.0 148 43 227
144.0 127.0 42.0 144 127 42
224.0 134.0 74.0 224 134 74
78.0 77.0 90.0 78 77 90
41.0 9.0 130.0 41 9 130
137.0 56.0 167.0 137 56 167
160.0 117.0 82.0 160 117 82
189.0 132.0 51.0 189 132 51
205.0 135.0 97.0 205 135 97
102.0 76.0 34.0 102 76 34
227.0 229.0 51.0 227 229 51
230.0 230.0 211.0 230 230 211
124.0 56.0 27.0 124 56 27
217.0 216.0 133.0 217 216 133
179.0 134.0 212.0 179 134 212
170.0 99.0 224.0 170 99 224
206.0 142.0 239.0 206 142 239
233.0 108.0 27.0 233 108 27
214.0 126.0 54.0 214 126 54
193.0 79.0 22.0 193 79 22
127.0 98.0 70.0 127 98 70
203.0 141.0 56.0 203 141 56
179.0 168.0 111.0 179 168 111
149.0 130.0 185.0 149 130 185
144.0 133.0 174.0 144 133 174
94.0 70.0 193.0 94 70 193
161.0 127.0 64.0 161 127 64
198.0 94.0 47.0 198 94 47
205.0 171.0 34.0 205 171 34
178.0 146.0 93.0 178 146 93
172.0 126.0 12.0 172 126 12
243.0 156.0 95.0 243 156 95
210.0 162.0 83.0 210 162 83
173.0 155.0 190.0 173 155 190
148.0 117.0 1.0 148 117 1
167.0 166.0 49.0 167 166 49
42.0 32.0 224.0 42 32 224
219.0 181.0 135.0 219 181 135
192.0 158.0 41.0 192 158 41
145.0 107.0 73.0 145 107 73
101.0 17.0 172.0 101 17 172
43.0 40.0 78.0 43 40 78
197.0 138.0 115.0 197 138 115
216.0 106.0 55.0 216 106 55
212.0 163.0 81.0 212 163 81
37.0 10.0 181.0 37 10 181
49.0 26.0 249.0 49 26 249
182.0 98.0 15.0 182 98 15
113.0 100.0 53.0 113 100 53
127.0 116.0 108.0 127 116 108
194.0 135.0 11.0 194 135 11
152.0 51.0 5.0 152 51 5
129.0 97.0 148.0 129 97 148
136.0 66.0 163.0 136 66 163
131.0 66.0 196.0 131 66 196
184.0 136.0 84.0 184 136 84
70.0 54.0 197.0 70 54 197
219.0 124.0 31.0 219 124 31
219.0 216.0 115.0 219 216 115
249.0 186.0 81.0 249 186 81
101.0 67.0 240.0 101 67 240
164.0 113.0 66.0 164 113 66
112.0 91.0 228.0 112 91 228
126.0 76.0 211.0 126 76 211
112.0 36.0 225.0 112 36 225
164.0 158.0 221.0 164 158 221
179.0 166.0 68.0 179 166 68
177.0 153.0 46.0 177 153 46
234.0 196.0 94.0 234 196 94
151.0 92.0 181.0 151 92 181
190.0 156.0 204.0 190 156 204
100.0 91.0 203.0 100 91 203
232.0 224.0 9.0 232 224 9
215.0 154.0 244.0 215 154 244
86.0 25.0 164.0 86 25 164
203.0 146.0 228.0 203 146 228
157.0 153.0 72.0 157 153 72
214.0 176.0 141.0 214 176 141
212.0 125.0 51.0 212 125 51
190.0 165.0 106.0 190 165 106
236.0 150.0 93.0 236 150 93
170.0 113.0 67.0 170 113 67
147.0 45.0 232.0 147 45 232
174.0 115.0 19.0 174 115 19
165.0 101.0 29.0 165 101 29
197.0 96.0 6.0 197 96 6
93.0 36.0 156.0 93 36 156
191.0 107.0 30.0 191 107 30
238.0 205.0 143.0 238 205 143
189.0 187.0 29.0 189 187 29
139.0 97.0 77.0 139 97 77
196.0 184.0 49.0 196 184 49
229.0 223.0 149.0 229 223 149
244.0 239.0 181.0 244 239 181
143.0 137.0 160.0 143 137 160
110.0 65.0 161.0 110 65 161
177.0 146.0 99.0 177 146 99
157.0 87.0 196.0 157 87 196
194.0 112.0 43.0 194 112 43
96.0 84.0 101.0 96 84 101
68.0 48.0 126.0 68 48 126
104.0 80.0 149.0 104 80 149
249.0 250.0 129.0 249 250 129
249.0 177.0 123.0 249 177 123
223.0 213.0 36.0 223 213 36
197.0 170.0 66.0 197 170 66
171.0 131.0 221.0 171 131 221
202.0 167.0 104.0 202 167 104
122.0 100.0 197.0 122 100 197
218.0 192.0 63.0 218 192 63
52.0 38.0 23.0 52 38 23
191.0 90.0 28.0 191 90 28
206.0 204.0 132.0 206 204 132
192.0 137.0 57.0 192 137 57
145.0 109.0 203.0 145 109 203
158.0 116.0 189.0 158 116 189
97.0 73.0 161.0 97 73 161
238.0 216.0 87.0 238 216 87
140.0 94.0 211.0 140 94 211
241.0 143.0 44.0 241 143 44
126.0 65.0 180.0 126 65 180
164.0 156.0 43.0 164 156 43
242.0 221.0 109.0 242 221 109
219.0 126.0 29.0 219 126 29
103.0 104.0 5.0 103 104 5
160.0 144.0 56.0 160 144 56
228.0 211.0 242.0 228 211 242
205.0 167.0 15.0 205 167 15
55.0 26.0 145.0 55 26 145
227.0 210.0 24.0 227 210 24
177.0 124.0 234.0 177 124 234
203.0 132.0 64.0 203 132 64
142.0 129.0 23.0 142 129 23
240.0 236.0 155.0 240 236 155
149.0 104.0 173.0 149 104 173
209.0 190.0 108.0 209 190 108
64.0 41.0 77.0 64 41 77
229.0 167.0 62.0 229 167 62
180.0 182.0 18.0 180 182 18
161.0 141.0 22.0 161 141 22
168.0 125.0 74.0 168 125 74
155.0 132.0 94.0 155 132 94
118.0 59.0 175.0 118 59 175
205.0 179.0 169.0 205 179 169
162.0 122.0 90.0 162 122 90
166.0 165.0 239.0 166 165 239
188.0 180.0 151.0 188 180 151
235.0 153.0 36.0 235 153 36
243.0 186.0 130.0 243 186 130
209.0 197.0 89.0 209 197 89
170.0 61.0 210.0 170 61 210
204.0 125.0 54.0 204 125 54
66.0 27.0 154.0 66 27 154
215.0 199.0 55.0 215 199 55
244.0 178.0 28.0 244 178 28
168.0 156.0 142.0 168 156 142
44.0 22.0 190.0 44 22 190
103.0 57.0 151.0 103 57 151
50.0 18.0 183.0 50 18 183
247.0 228.0 110.0 247 228 110
114.0 101.0 71.0 114 101 71
234.0 223.0 95.0 234 223 95
237.0 181.0 80.0 237 181 80
194.0 160.0 58.0 194 160 58
104.0 10.0 188.0 104 10 188
183.0 80.0 246.0 183 80 246
48.0 42.0 9.0 48 42 9
175.0 108.0 74.0 175 108 74
239.0 203.0 51.0 239 203 51
112.0 83.0 53.0 112 83 53
229.0 131.0 95.0 229 131 95
96.0 61.0 136.0 96 61 136
115.0 112.0 53.0 115 112 53
195.0 86.0 244.0 195 86 244
217.0 211.0 37.0 217 211 37
49.0 27.0 63.0 49 27 63
123.0 121.0 212.0 123 121 212
229.0 194.0 111.0 229 194 111
213.0 138.0 67.0 213 138 67
149.0 123.0 189.0 149 123 189
245.0 102.0 18.0 245 102 18
74.0 56.0 156.0 74 56 156
229.0 230.0 49.0 229 230 49
158.0 126.0 99.0 158 126 99
175.0 98.0 209.0 175 98 209
140.0 120.0 110.0 140 120 110
119.0 22.0 175.0 119 22 175
177.0 147.0 116.0 177 147 116
184.0 173.0 77.0 184 173 77
212.0 143.0 103.0 212 143 103
55.0 4.0 118.0 55 4 118
137.0 72.0 188.0 137 72 188
177.0 145.0 14.0 177 145 14
242.0 243.0 166.0 242 243 166
103.0 40.0 199.0 103 40 199
182.0 111.0 82.0 182 111 82
199.0 136.0 239.0 199 136 239
210.0 170.0 106.0 210 170 106
96.0 48.0 235.0 96 48 235
164.0 93.0 59.0 164 93 59
117.0 99.0 85.0 117 99 85
128.0 102.0 90.0 128 102 90
200.0 180.0 4.0 200 180 4
173.0 137.0 89.0 173 137 89
188.0 127.0 77.0 188 127 77
159.0 132.0 43.0 159 132 43
253.0 89.0 23.0 253 89 23
217.0 216.0 205.0 217 216 205
173.0 141.0 26.0 173 141 26
146.0 110.0 63.0 146 110 63
134.0 93.0 62.0 134 93 62
73.0 22.0 158.0 73 22 158
229.0 155.0 122.0 229 155 122
218.0 155.0 73.0 218 155 73
174.0 107.0 237.0 174 107 237
136.0 79.0 200.0 136 79 200
67.0 64.0 109.0 67 64 109
172.0 144.0 54.0 172 144 54
132.0 128.0 143.0 132 128 143
215.0 180.0 69.0 215 180 69
181.0 134.0 86.0 181 134 86
216.0 116.0 30.0 216 116 30
53.0 28.0 162.0 53 28 162
153.0 122.0 28.0 153 122 28
211.0 192.0 50.0 211 192 50
176.0 135.0 102.0 176 135 102
209.0 96.0 50.0 209 96 50
203.0 108.0 31.0 203 108 31
194.0 188.0 34.0 194 188 34
143.0 108.0 202.0 143 108 202
30.0 26.0 94.0 30 26 94
195.0 154.0 128.0 195 154 128
186.0 186.0 61.0 186 186 61
228.0 111.0 26.0 228 111 26
150.0 119.0 215.0 150 119 215
148.0 120.0 181.0 148 120 181
148.0 87.0 17.0 148 87 17
176.0 76.0 26.0 176 76 26
229.0 175.0 140.0 229 175 140
162.0 84.0 25.0 162 84 25
165.0 42.0 246.0 165 42 246
81.0 61.0 218.0 81 61 218
149.0 89.0 198.0 149 89 198
238.0 208.0 18.0 238 208 18
126.0 106.0 151.0 126 106 151
77.0 25.0 176.0 77 25 176
177.0 172.0 6.0 177 172 6
158.0 115.0 224.0 158 115 224
237.0 164.0 8.0 237 164 8
126.0 126.0 136.0 126 126 136
157.0 157.0 101.0 157 157 101
73.0 48.0 190.0 73 48 190
140.0 134.0 89.0 140 134 89
150.0 136.0 100.0 150 136 100
205.0 120.0 78.0 205 120 78
250.0 134.0 80.0 250 134 80
110.0 103.0 68.0 110 103 68
169.0 167.0 22.0 169 167 22
199.0 184.0 207.0 199 184 207
201.0 134.0 33.0 201 134 33
136.0 118.0 78.0 136 118 78
240.0 203.0 132.0 240 203 132
127.0 85.0 200.0 127 85 200
111.0 88.0 54.0 111 88 54
218.0 172.0 141.0 218 172 141
92.0 10.0 235.0 92 10 235
167.0 118.0 213.0 167 118 213
224.0 202.0 48.0 224 202 48
232.0 105.0 26.0 232 105 26
129.0 83.0 38.0 129 83 38
243.0 108.0 53.0 243 108 53
131.0 97.0 217.0 131 97 217
221.0 177.0 29.0 221 177 29
239.0 237.0 41.0 239 237 41
98.0 89.0 45.0 98 89 45
96.0 39.0 212.0 96 39 212
213.0 189.0 11.0 213 189 11
228.0 145.0 22.0 228 145 22
185.0 176.0 219.0 185 176 219
45.0 47.0 202.0 45 47 202
243.0 244.0 75.0 243 244 75
105.0 62.0 124.0 105 62 124
135.0 32.0 223.0 135 32 223
148.0 142.0 175.0 148 142 175
112.0 91.0 78.0 112 91 78
139.0 102.0 213.0 139 102 213
219.0 218.0 18.0 219 218 18
99.0 68.0 146.0 99 68 146
238.0 234.0 119.0 238 234 119
215.0 203.0 171.0 215 203 171
196.0 188.0 78.0 196 188 78
67.0 65.0 167.0 67 65 167
118.0 114.0 73.0 118 114 73
84.0 80.0 217.0 84 80 217
168.0 113.0 70.0 168 113 70
121.0 110.0 43.0 121 110 43
97.0 33.0 169.0 97 33 169
202.0 136.0 48.0 202 136 48
31.0 12.0 188.0 31 12 188
150.0 114.0 5.0 150 114 5
46.0 43.0 122.0 46 43 122
148.0 95.0 201.0 148 95 201
99.0 78.0 238.0 99 78 238
214.0 187.0 234.0 214 187 234
159.0 126.0 84.0 159 126 84
243.0 194.0 169.0 243 194 169
83.0 65.0 241.0 83 65 241
129.0 126.0 157.0 129 126 157
137.0 105.0 80.0 137 105 80
230.0 136.0 87.0 230 136 87
133.0 117.0 185.0 133 117 185
222.0 154.0 55.0 222 154 55
135.0 118.0 214.0 135 118 214
235.0 221.0 147.0 235 221 147
179.0 176.0 132.0 179 176 132
142.0 120.0 44.0 142 120 44
243.0 215.0 11.0 243 215 11
131.0 114.0 52.0 131 114 52
230.0 136.0 62.0 230 136 62
173.0 166.0 11.0 173 166 11
99.0 23.0 204.0 99 23 204
232.0 136.0 59.0 232 136 59
246.0 237.0 105.0 246 237 105
201.0 118.0 48.0 201 118 48
218.0 86.0 21.0 218 86 21
216.0 139.0 61.0 216 139 61
141.0 119.0 45.0 141 119 45
115.0 115.0 44.0 115 115 44
218.0 165.0 138.0 218 165 138
234.0 125.0 54.0 234 125 54
104.0 99.0 124.0 104 99 124
40.0 9.0 88.0 40 9 88
110.0 106.0 132.0 110 106 132
223.0 174.0 37.0 223 174 37
161.0 77.0 22.0 161 77 22
101.0 65.0 177.0 101 65 177
150.0 110.0 190.0 150 110 190
82.0 81.0 149.0 82 81 149
200.0 133.0 44.0 200 133 44
199.0 176.0 21.0 199 176 21
143.0 97.0 39.0 143 97 39
248.0 201.0 106.0 248 201 106
166.0 144.0 66.0 166 144 66
251.0 214.0 140.0 251 214 140
134.0 96.0 38.0 134 96 38
205.0 162.0 121.0 205 162 121
168.0 160.0 24.0 168 160 24
66.0 56.0 88.0 66 56 88
192.0 117.0 36.0 192 117 36
243.0 128.0 16.0 243 128 16
178.0 121.0 230.0 178 121 230
80.0 19.0 206.0 80 19 206
224.0 131.0 25.0 224 131 25
97.0 58.0 181.0 97 58 181
222.0 120.0 35.0 222 120 35
202.0 173.0 33.0 202 173 33
226.0 221.0 23.0 226 221 23
247.0 194.0 170.0 247 194 170
201.0 178.0 211.0 201 178 211
203.0 201.0 166.0 203 201 166
142.0 112.0 219.0 142 112 219
237.0 216.0 31.0 237 216 31
146.0 125.0 45.0 146 125 45
200.0 170.0 127.0 200 170 127
161.0 130.0 58.0 161 130 58
233.0 231.0 112.0 233 231 112
195.0 169.0 125.0 195 169 125
57.0 43.0 101.0 57 43 101
161.0 119.0 29.0 161 119 29
227.0 137.0 44.0 227 137 44
89.0 77.0 155.0 89 77 155
120.0 121.0 53.0 120 121 53
240.0 209.0 114.0 240 209 114
45.0 34.0 25.0 45 34 25
248.0 183.0 18.0 248 183 18
104.0 96.0 92.0 104 96 92
175.0 104.0 219.0 175 104 219
79.0 48.0 32.0 79 48 32
194.0 171.0 116.0 194 171 116
133.0 30.0 171.0 133 30 171
130.0 90.0 210.0 130 90 210
105.0 66.0 188.0 105 66 188
230.0 178.0 149.0 230 178 149
175.0 141.0 73.0 175 141 73
157.0 144.0 167.0 157 144 167
180.0 165.0 122.0 180 165 122
200.0 200.0 32.0 200 200 32
42.0 40.0 156.0 42 40 156
109.0 91.0 125.0 109 91 125
140.0 46.0 225.0 140 46 225
204.0 151.0 20.0 204 151 20
216.0 198.0 180.0 216 198 180
249.0 116.0 31.0 249 116 31
217.0 210.0 20.0 217 210 20
131.0 117.0 87.0 131 117 87
235.0 209.0 18.0 235 209 18
126.0 32.0 166.0 126 32 166
200.0 77.0 20.0 200 77 20
87.0 45.0 173.0 87 45 173
132.0 80.0 22.0 132 80 22
166.0 136.0 77.0 166 136 77
244.0 223.0 185.0 244 223 185
232.0 156.0 109.0 232 156 109
126.0 102.0 147.0 126 102 147
94.0 81.0 197.0 94 81 197
238.0 225.0 62.0 238 225 62
60.0 49.0 83.0 60 49 83
98.0 87.0 26.0 98 87 26
194.0 115.0 62.0 194 115 62
168.0 121.0 97.0 168 121 97
186.0 90.0 50.0 186 90 50
119.0 80.0 150.0 119 80 150
154.0 148.0 121.0 154 148 121
127.0 49.0 181.0 127 49 181
38.0 23.0 182.0 38 23 182
73.0 28.0 174.0 73 28 174
151.0 142.0 54.0 151 142 54
127.0 113.0 133.0 127 113 133
212.0 151.0 32.0 212 151 32
115.0 94.0 162.0 115 94 162
94.0 89.0 29.0 94 89 29
97.0 83.0 32.0 97 83 32
245.0 231.0 119.0 245 231 119
221.0 204.0 168.0 221 204 168
175.0 130.0 106.0 175 130 106
249.0 179.0 37.0 249 179 37
172.0 167.0 104.0 172 167 104
240.0 187.0 154.0 240 187 154
152.0 70.0 207.0 152 70 207
105.0 90.0 181.0 105 90 181
108.0 73.0 134.0 108 73 134
219.0 210.0 136.0 219 210 136
134.0 111.0 241.0 134 111 241
199.0 139.0 101.0 199 139 101
224.0 185.0 132.0 224 185 132
231.0 230.0 18.0 231 230 18
153.0 76.0 193.0 153 76 193
71.0 65.0 226.0 71 65 226
89.0 66.0 130.0 89 66 130
94.0 90.0 115.0 94 90 115
188.0 86.0 230.0 188 86 230
184.0 147.0 87.0 184 147 87
247.0 204.0 132.0 247 204 132
175.0 114.0 84.0 175 114 84
244.0 219.0 87.0 244 219 87
129.0 47.0 203.0 129 47 203
244.0 223.0 136.0 244 223 136
193.0 189.0 39.0 193 189 39
201.0 160.0 72.0 201 160 72
168.0 113.0 67.0 168 113 67
239.0 146.0 61.0 239 146 61
232.0 233.0 42.0 232 233 42
55.0 4.0 138.0 55 4 138
170.0 149.0 25.0 170 149 25
46.0 41.0 132.0 46 41 132
128.0 110.0 143.0 128 110 143
219.0 206.0 119.0 219 206 119
86.0 62.0 136.0 86 62 136
154.0 121.0 65.0 154 121 65
248.0 210.0 63.0 248 210 63
170.0 123.0 89.0 170 123 89
227.0 105.0 41.0 227 105 41
177.0 141.0 43.0 177 141 43
221.0 121.0 67.0 221 121 67
240.0 140.0 48.0 240 140 48
195.0 177.0 73.0 195 177 73
227.0 218.0 181.0 227 218 181
69.0 5.0 200.0 69 5 200
200.0 194.0 184.0 200 194 184
110.0 64.0 189.0 110 64 189
140.0 10.0 191.0 140 10 191
211.0 202.0 172.0 211 202 172
127.0 103.0 28.0 127 103 28
153.0 135.0 167.0 153 135 167
223.0 101.0 30.0 223 101 30
139.0 112.0 97.0 139 112 97
205.0 191.0 65.0 205 191 65
51.0 14.0 98.0 51 14 98
195.0 183.0 25.0 195 183 25
49.0 49.0 83.0 49 49 83
84.0 78.0 196.0 84 78 196
134.0 28.0 231.0 134 28 231
190.0 189.0 13.0 190 189 13
237.0 233.0 77.0 237 233 77
234.0 195.0 103.0 234 195 103
214.0 183.0 171.0 214 183 171
81.0 37.0 193.0 81 37 193
73.0 32.0 241.0 73 32 241
55.0 24.0 155.0 55 24 155
251.0 116.0 12.0 251 116 12
157.0 79.0 209.0 157 79 209
106.0 94.0 237.0 106 94 237
103.0 94.0 75.0 103 94 75
92.0 22.0 201.0 92 22 201
237.0 211.0 67.0 237 211 67
131.0 96.0 77.0 131 96 77
131.0 123.0 81.0 131 123 81
79.0 28.0 151.0 79 28 151
48.0 29.0 175.0 48 29 175
128.0 128.0 59.0 128 128 59
239.0 228.0 40.0 239 228 40
244.0 167.0 53.0 244 167 53
70.0 64.0 153.0 70 64 153
219.0 221.0 67.0 219 221 67
175.0 134.0 57.0 175 134 57
168.0 109.0 84.0 168 109 84
248.0 157.0 25.0 248 157 25
154.0 66.0 28.0 154 66 28
157.0 134.0 104.0 157 134 104
170.0 136.0 70.0 170 136 70
198.0 190.0 170.0 198 190 170
224.0 141.0 25.0 224 141 25
201.0 83.0 10.0 201 83 10
161.0 153.0 177.0 161 153 177
36.0 23.0 74.0 36 23 74
94.0 52.0 126.0 94 52 126
225.0 152.0 42.0 225 152 42
162.0 113.0 250.0 162 113 250
166.0 143.0 69.0 166 143 69
172.0 155.0 45.0 172 155 45
